NCOLS 35 
NROWS 24 
XLLCORNER 656201 
YLLCORNER 1296813 
CELLSIZE 90 
NODATA_value -9999 
-9999.000000000000000 -9999 -9999 -9999 -9999 -9999 -9999 -9999 -9999 -9999 -9999 -9999 -9999 -9999 -9999 -9999 -9999 -9999 -9999 -9999 -9999 -9999 -9999 -9999 -9999 -9999 -9999 -9999 -9999 -9999 -9999 -9999 -9999 -9999 -9999
-9999 -9999 -9999 -9999 -9999 -9999 -9999 -9999 -9999 -9999 -9999 -9999 -9999 -9999 -9999 -9999 888.317912735808 886.358144145013 885.463906939877 885.923074837125 887.600430435702 -9999 -9999 -9999 -9999 -9999 -9999 -9999 -9999 -9999 -9999 -9999 -9999 -9999 -9999
-9999 -9999 -9999 -9999 -9999 -9999 -9999 -9999 -9999 -9999 -9999 -9999 -9999 -9999 885.103858089133 883.562616236494 880.924089692654 876.039736709811 878.702710438211 882.192073117793 884.907239633097 886.903856182725 891.901366458275 896.208577277969 900.266493461383 900.049794011103 898.968695959578 899.201732968181 905.026458013552 909.569064351654 -9999 -9999 -9999 -9999 -9999
-9999 -9999 -9999 -9999 -9999 -9999 -9999 -9999 -9999 -9999 -9999 -9999 877.312798481598 879.44517881153 879.202315149754 877.569177529982 874.36454035541 868.107261841212 873.124048965815 875.659588958241 876.555786832655 880.709981449794 889.087767602395 892.99940378117 893.538863432021 891.08126769105 892.46521920316 901.165406533373 904.943762538018 907.767582165466 908.755553178933 -9999 -9999 -9999 -9999
-9999 -9999 -9999 -9999 -9999 -9999 -9999 -9999 -9999 871.267079216561 874.106356199681 873.986833625563 872.214093817378 872.414658320222 873.45682763319 875.038341322021 869.276492200871 863.926687618453 867.329514213327 867.759023172569 870.716921003704 879.269024873463 884.348064310829 886.555436277351 884.323207720061 884.951196182516 895.783576515017 902.796897610388 904.388740342917 903.103858743962 905.75721331127 -9999 -9999 -9999 -9999
-9999 -9999 -9999 -9999 -9999 -9999 -9999 865.948937173 867.277329557482 867.796150644815 869.055185411548 867.261478404824 864.734256056232 865.521612733545 869.280058943623 867.925212797589 863.312998907112 859.959542753295 860.6086353395 863.380412137942 872.826257246553 878.444965486083 879.179483098796 877.918452950041 877.754916934733 887.479292574488 895.619417448642 897.55293812432 897.224548894922 896.872196540711 903.939581144394 -9999 -9999 -9999 -9999
-9999 -9999 -9999 -9999 -9999 -9999 867.55371796094 867.580710978602 866.554477310768 862.273867049612 860.845445432316 859.813010153658 858.357991615256 864.41538931323 864.834694723947 861.258413086593 856.828229938861 854.40487391174 858.41260314583 866.192996001257 871.974638582253 873.858832304954 872.863915892519 873.96158153907 881.777374834357 887.843826362059 890.43970090037 889.864389477025 891.176588044678 898.794684782469 906.181051224439 905.789099939384 -9999 -9999 -9999
-9999 -9999 -9999 -9999 -9999 -9999 868.566564821425 870.828656283759 867.930633760777 861.953906613275 854.66773226925 851.983735085491 855.889851043099 859.447337739061 859.540580412779 855.931183120726 851.5030266586 855.298451571055 862.445035504432 864.093476321783 866.916559548541 865.872284812885 866.448706681623 873.462071295948 882.32469034245 884.076808843273 880.050535673883 884.312573785596 894.055916166498 901.906190235926 905.79535620703 907.658208144063 -9999 -9999 -9999
-9999 -9999 -9999 -9999 -9999 -9999 868.477996763873 869.294347906216 867.399542348728 861.740265293383 855.128669376173 847.791706208649 853.220140080479 854.049041758283 852.081338613622 850.543679223791 850.277524370479 854.313879684052 856.572156252838 857.295087201825 859.310385912509 864.482649781242 870.99862952555 877.814520902546 880.935236645699 878.165326136384 876.983857046357 886.023997461774 892.221854550547 897.054070798392 903.000749762658 907.358570879014 -9999 -9999 -9999
-9999 -9999 -9999 -9999 -9999 861.596502667069 864.327640339593 866.772643529636 866.292769748023 861.054386537777 854.316826734468 847.29758666291 848.615043971995 847.56692216425 845.263139028138 846.16758424871 848.22485509622 851.757698622533 858.564673604976 861.099176127994 865.872952268653 871.419812640817 875.920984982233 878.545795715721 878.020582412226 871.834425172391 875.635439690888 881.689479205723 885.374306475799 889.767518994517 898.957434662463 906.691364265143 908.750386649371 -9999 -9999
-9999 -9999 -9999 860.259522805369 857.340218569574 856.206634642407 859.16465535033 861.713609636013 862.310624325642 857.424226567666 852.522444221241 845.224699984585 842.818222615929 844.753894293078 847.557251122849 851.865271671144 854.022609536465 858.525752968383 864.631999306169 869.487171602462 871.712523780183 874.785678710485 875.885916827628 877.969050021025 875.186770090425 868.779783218636 871.783664459434 878.032437395641 885.676615124319 892.92579421766 899.264850959477 903.318501160375 905.704270712481 907.612288210133 -9999
-9999 -9999 860.146218490054 858.963207887194 853.632474766371 848.840486017061 853.603825784203 857.196939775502 857.420095360707 854.010697325954 848.576223016317 842.919295868085 842.256429250376 847.218558546285 852.759896092424 857.897822178217 861.252601640436 865.447156418669 868.911644611433 872.455951926194 873.345011143595 874.699782942896 873.876048050702 873.268731004324 870.477502063671 868.6758786061 878.314764451736 884.528020455602 891.029208917246 894.893803159743 896.636958313916 897.223754094197 902.545203721709 905.96391803747 -9999
-9999 -9999 858.288822188148 855.424523692143 849.677644935717 843.416500893937 849.413196197414 852.626670058349 852.555044788454 848.601351741194 844.244104351678 839.137110186973 847.437264302965 852.513883608886 857.193123516135 860.374882775426 862.972166521813 866.525258923275 869.014661819384 870.59335270582 869.555817551718 869.802151178923 868.25291322671 867.06813463847 863.414907788272 873.33199647533 881.265349370424 887.00515146543 891.640740067745 893.072740664292 890.989341659007 893.956741852948 901.312329853851 903.178338040813 -9999
-9999 -9999 855.708896382947 852.408326134012 845.920087867798 840.79184173858 844.634002176445 846.811161728702 847.312671580297 843.65615261765 838.907262578333 839.352584434154 847.406192311314 853.933504954818 856.872426027227 857.204255506215 860.720986221315 862.56052899753 865.141221589138 866.164620628867 864.050373572442 861.276745292993 861.520297418822 859.362271439907 865.212626136703 874.072733039887 879.779083342615 886.353456528952 889.078847055181 888.316193270602 886.755010456918 894.87947054223 899.87551807613 -9999 -9999
-9999 850.868660913756 850.573550621947 846.033200398163 840.955851908706 836.120815933994 837.174124370147 840.690575830345 841.546609556381 837.218796651495 838.090606739502 844.349617499427 848.41728783792 852.37296259036 854.102945042989 852.624585849959 853.588397627283 856.478736915152 857.304864800389 856.586883624796 857.767402716186 853.694839660501 857.537702127924 857.891178884769 864.74487897102 869.887111760351 873.519849801355 876.957534181847 879.307292224717 880.664624164497 887.629040266755 894.576324166654 898.57579138632 -9999 -9999
-9999 844.567191995627 843.456404104509 838.332447698085 833.251150104708 832.062512737631 832.822432538395 833.789488275283 834.727028777498 834.034163343035 837.949129876232 844.232365513973 847.5520343022 849.511168031905 850.198500445635 848.522090948744 847.508621103691 849.580869086335 852.636203117035 851.709947049915 854.228241817957 859.959251759233 865.270529910746 864.918902574811 864.043987516598 866.975176570252 870.179116251187 873.819716280121 878.012773313286 883.54800232961 893.893610520329 896.050030045114 -9999 -9999 -9999
-9999 839.335383422383 839.517249623559 833.182610049236 831.292266403358 831.082466896797 834.013041628098 835.70064563165 834.947500654806 835.202840644652 835.786220498863 840.703003635513 843.164993795783 845.31881819907 844.989794490105 842.074526721427 845.416622657665 847.21733293743 849.925326251511 854.809823631819 860.594837577847 864.420065166918 869.31506969371 872.71933167764 873.678342126986 875.322090752476 878.162641094063 882.502523188197 883.616756036859 887.212158623831 891.288822232388 -9999 -9999 -9999 -9999
-9999 -9999 835.832061275958 832.263632347101 832.668313605027 837.616160732843 838.975357785267 840.53830644105 841.921342752974 840.024137016798 837.686545179685 837.23636228231 837.765391617026 840.515845814576 840.066504393858 839.917191092123 847.844128958651 852.091906461524 854.998841971834 860.789728161759 864.942579870749 869.975604326663 874.195882066669 878.538636805992 881.604578002899 883.645100220335 885.808017254989 884.414558565606 883.411671471253 884.115186299969 -9999 -9999 -9999 -9999 -9999
-9999 -9999 830.045895216023 831.245979724905 836.04863208078 841.58787312574 844.099019944114 846.075083657085 848.159552564986 846.959930220978 845.373857973103 843.847334216843 840.994177252642 841.100875833881 841.111159485656 842.22591445467 845.292532020805 851.004418621453 857.109216331958 862.708015999218 868.275261092397 871.6048363099 876.402278503657 882.396098683079 885.847078548757 889.021818246367 -9999 -9999 -9999 -9999 -9999 -9999 -9999 -9999 -9999
-9999 -9999 -9999 832.979635930199 838.652518560563 844.002096776594 849.512574585516 852.85553471527 853.134708692775 853.633540789888 851.996703699557 848.092738949147 846.238617403353 851.584250678712 849.090270565073 845.583989994463 844.755109699941 846.966436461326 852.429421903488 860.115889555548 863.714978605794 869.774016482996 873.921034382732 880.13984138567 883.704748643207 -9999 -9999 -9999 -9999 -9999 -9999 -9999 -9999 -9999 -9999
-9999 -9999 -9999 835.782835664411 840.5345063884 -9999 850.14942457761 854.243031027117 854.940379819747 856.404317202744 857.725998642273 853.711457768055 852.005264613721 856.784307720701 855.688822725842 850.134389039655 852.977409002176 853.430481676723 853.022981050554 855.713518667279 859.295196628069 867.375306030645 873.771659930532 877.58805382137 -9999 -9999 -9999 -9999 -9999 -9999 -9999 -9999 -9999 -9999 -9999
-9999 -9999 -9999 -9999 -9999 -9999 -9999 -9999 -9999 -9999 -9999 858.56968902798 860.645045598261 862.377283612941 861.666493384172 858.214442799408 861.346100332376 863.12910444208 863.666698230358 860.571368406307 860.591364868061 867.107590254566 871.946794524586 -9999 -9999 -9999 -9999 -9999 -9999 -9999 -9999 -9999 -9999 -9999 -9999
-9999 -9999 -9999 -9999 -9999 -9999 -9999 -9999 -9999 -9999 -9999 -9999 -9999 -9999 866.605535696206 867.689794950701 868.156927271885 869.917583195168 871.120411250374 870.195105581789 869.277911418815 869.765638810821 -9999 -9999 -9999 -9999 -9999 -9999 -9999 -9999 -9999 -9999 -9999 -9999 -9999
-9999 -9999 -9999 -9999 -9999 -9999 -9999 -9999 -9999 -9999 -9999 -9999 -9999 -9999 -9999 -9999 -9999 -9999 -9999 -9999 -9999 -9999 -9999 -9999 -9999 -9999 -9999 -9999 -9999 -9999 -9999 -9999 -9999 -9999 -9999
